VERSION .7
FIELDS x y z velocity intensity
SIZE 4 4 4 4 4
TYPE F F F F F
COUNT 1 1 1 1 1
WIDTH 982
HEIGHT 1
VIEWPOINT 0 0 0 1 0 0 0
POINTS 982
DATA ascii
-1.522900 0.951348 29.246100 -6.837600 8.230000
14.068100 0.770186 25.691600 -6.304800 6.670000
14.276800 0.620639 26.072700 -6.304800 4.630000
-8.399850 2.539030 28.858300 -22.466400 5.630000
-8.524140 2.386690 29.285300 -22.466400 6.210000
13.098000 1.725870 27.594400 -6.393600 6.810000
-8.644190 2.420300 29.697800 -22.466400 7.190000
13.497800 1.750180 27.879800 -6.393600 10.480000
-7.957580 1.968710 30.368800 -22.732800 14.960000
-8.764250 2.453920 30.110300 -22.466400 6.510000
13.685300 1.774490 28.267000 -6.393600 15.160000
-8.066590 1.995680 30.784800 -22.644000 9.550000
13.282100 0.468411 28.984900 -6.482400 7.370000
-8.776890 1.922880 31.043300 -22.555200 11.270000
13.631700 0.374801 29.299400 -6.482400 9.440000
-8.893920 1.948520 31.457300 -22.555200 7.880000
14.041300 0.481071 29.581600 -6.482400 5.870000
-21.183800 1.203180 30.381700 -5.416800 5.490000
5.258500 1.976060 36.629100 10.656000 7.410000
-21.427900 1.333040 30.731700 -5.416800 6.540000
5.319650 1.999030 37.055100 10.656000 9.240000
-21.674200 1.348360 31.085000 -5.416800 12.600000
5.378910 2.256180 37.467900 10.656000 9.080000
-21.920500 1.363680 31.438200 -5.416800 16.450000
5.439010 2.400210 37.886500 10.656000 8.130000
-1.194890 1.139260 38.745800 -6.837600 16.030000
3.500400 2.427180 38.546400 10.656000 15.730000
-1.208170 1.151910 39.176400 -6.837600 8.590000
6.084360 2.333100 38.666700 10.744800 18.180000
-0.992564 1.042020 39.616700 -6.837600 10.040000
5.850790 2.236340 39.144800 10.656000 15.840000
5.909800 2.755420 39.539600 10.656000 11.320000
-27.137600 2.205830 31.142600 -4.972800 9.330000
15.970100 0.373805 40.946000 -6.571200 7.070000
16.125500 0.651978 41.344500 -6.571200 8.580000
16.039700 0.796885 41.837200 -6.571200 5.890000
16.193900 0.804548 42.239500 -6.571200 8.710000
-19.221300 2.897140 44.643400 -6.127200 13.730000
-19.296200 1.948520 46.535600 -6.216000 9.920000
18.178100 2.593550 47.414800 -6.571200 7.540000
-19.461200 1.965180 46.933300 -6.216000 10.650000
18.332100 2.615530 47.816700 -6.571200 9.540000
18.486200 2.637510 48.218500 -6.571200 7.250000
-25.600300 -0.772246 45.908700 -5.860800 7.410000
18.500100 5.236770 49.390300 -6.660000 10.770000
-25.455400 0.122937 46.487500 -5.860800 7.010000
18.723300 2.395310 49.986300 -6.660000 11.340000
-25.646200 -1.899960 46.835900 -5.860800 7.460000
18.866500 2.872170 50.368400 -6.660000 7.220000
-25.853000 -1.915290 47.213600 -5.860800 6.730000
1.673090 1.301210 54.252000 -6.926400 8.660000
18.990900 4.068110 50.700800 -6.660000 7.210000
18.086700 -0.128934 52.561100 -6.660000 7.650000
20.052800 0.000000 52.304800 -6.660000 6.590000
19.978600 1.394160 54.615300 -6.660000 7.810000
18.624300 2.446040 55.510300 -6.660000 5.630000
18.756100 2.828810 55.902900 -6.660000 6.550000
19.326400 2.849460 56.163700 -6.660000 5.510000
19.466500 2.870100 56.570700 -6.660000 8.790000
19.606500 2.890750 56.977700 -6.660000 11.890000
-17.959000 2.331560 57.543600 -6.482400 14.880000
20.465900 1.313240 59.474900 -6.660000 8.560000
20.143900 1.322230 60.039300 -6.660000 6.510000
20.548600 2.098560 61.245700 -6.660000 11.670000
-13.067500 2.112550 63.705200 -19.447200 15.560000
20.685600 2.112550 61.654000 -6.660000 7.320000
-13.524500 2.126540 64.049900 -19.447200 7.250000
20.343700 2.126540 62.220900 -6.660000 9.140000
-14.112600 1.732920 64.376200 -19.358400 15.720000
21.227900 -9.498970 61.689600 -6.660000 18.820000
-14.569600 2.420920 66.460900 -19.358400 11.610000
21.412100 2.451570 65.488800 -6.660000 14.770000
-12.099500 1.448160 68.296300 -19.624800 6.430000
22.045000 3.110040 65.705600 -6.660000 6.950000
20.796600 0.000000 66.635900 -6.748800 9.260000
20.925000 0.162917 67.047100 -6.748800 15.690000
21.053300 0.163916 67.458400 -6.748800 7.590000
22.094900 0.384802 67.577100 -6.660000 5.480000
-12.068700 1.271950 70.492400 -19.624800 13.140000
-12.141400 1.279610 70.917100 -19.624800 10.220000
-11.664500 1.063420 71.437300 -19.624800 6.070000
-11.733900 1.069750 71.862600 -19.624800 6.400000
22.352300 2.151930 69.726200 -6.748800 7.170000
22.483800 2.164590 70.136400 -6.748800 16.010000
22.615200 2.177240 70.546500 -6.748800 14.570000
-34.903000 2.189900 65.833500 -5.949600 8.180000
-34.994000 1.993420 67.252600 -5.949600 9.810000
20.020200 3.147610 78.878200 -6.837600 7.890000
22.734700 1.253320 82.223800 -6.748800 7.700000
22.849500 1.259650 82.639100 -6.748800 10.590000
22.963200 1.532470 83.050200 -6.748800 13.270000
20.812600 2.544340 84.034600 -6.837600 11.710000
22.529600 3.633090 83.997000 -6.748800 8.410000
23.303300 2.299230 84.280200 -6.748800 6.050000
23.413800 2.854040 84.679900 -6.748800 5.770000
23.541000 0.000000 85.139900 -6.748800 6.020000
21.938500 1.861920 86.436200 -6.837600 6.410000
22.047800 1.039450 86.866800 -6.837600 6.810000
22.155000 0.487416 87.289100 -6.837600 6.230000
21.750500 1.609100 87.821300 -6.837600 10.750000
22.360900 2.179010 88.100300 -6.837600 14.500000
23.653000 2.965970 88.185600 -6.837600 13.910000
21.363900 3.263650 89.201000 -6.837600 9.520000
21.468500 2.708900 89.637800 -6.837600 9.280000
21.053700 1.647410 90.204500 -6.837600 16.290000
21.151600 1.655070 90.624000 -6.837600 17.990000
21.249500 1.662730 91.043600 -6.837600 15.770000
21.875800 1.670390 91.338200 -6.837600 10.020000
22.682700 1.678060 91.585100 -6.837600 11.890000
23.306600 3.370910 91.826500 -6.837600 14.030000
20.916000 3.386230 92.841800 -6.837600 12.850000
21.012800 3.105870 93.271700 -6.837600 13.120000
21.829000 3.119860 93.526400 -6.837600 13.720000
23.204200 0.000000 93.690900 -6.837600 9.660000
24.574900 0.224885 93.786000 -6.748800 9.770000
24.683800 0.527062 94.201700 -6.748800 8.540000
21.492800 2.041810 95.401900 -6.837600 11.370000
22.318400 3.189810 95.623400 -6.837600 15.540000
22.416300 3.203800 96.042800 -6.837600 15.200000
22.511800 3.524130 96.452000 -6.837600 11.730000
21.406100 0.850223 97.646400 -6.837600 11.080000
24.239200 0.857553 97.870000 -6.837600 13.650000
24.338400 2.113770 98.270400 -6.837600 17.200000
23.673300 3.301740 98.843400 -6.837600 16.040000
23.775900 3.000040 99.271700 -6.837600 11.940000
22.326000 1.854290 101.843000 -6.837600 9.990000
22.412100 3.075990 102.236000 -6.837600 8.340000
26.759400 0.000000 102.123000 -6.837600 11.230000
26.077500 0.000000 102.744000 -6.748800 9.980000
21.386600 0.000000 104.261000 -6.837600 8.660000
26.289200 0.578369 103.577000 -6.837600 9.780000
21.559500 0.580701 105.104000 -6.837600 8.760000
23.053100 3.830570 105.160000 -6.837600 5.610000
23.145300 3.845900 105.580000 -6.837600 5.930000
23.242200 3.189920 106.022000 -6.837600 7.130000
23.334500 3.202570 106.443000 -6.837600 5.690000
26.415400 -0.254870 106.657000 -6.837600 8.440000
26.519000 0.255869 107.075000 -6.837600 10.300000
22.252400 -0.256869 108.482000 -6.837600 11.710000
23.055700 1.294310 109.188000 -6.837600 7.350000
22.505800 2.685040 109.717000 -6.837600 5.080000
22.589100 3.303840 110.123000 -6.837600 6.670000
23.314200 3.316500 110.412000 -6.837600 6.520000
23.403200 3.329160 110.834000 -6.837600 7.780000
22.857000 1.319300 111.430000 -6.837600 13.020000
26.596200 0.264865 111.048000 -6.837600 14.430000
24.720100 3.035440 112.764000 -6.837600 9.830000
27.969300 0.269862 112.931000 -6.837600 8.430000
28.486900 0.641337 115.021000 -6.837600 14.360000
27.699300 1.011470 115.653000 -6.837600 15.620000
27.127400 1.384260 116.227000 -6.837600 13.010000
27.224200 1.759710 116.642000 -6.837600 12.400000
27.322200 1.766040 117.062000 -6.837600 9.480000
28.098700 1.772370 117.321000 -6.837600 8.460000
28.298000 2.160790 118.153000 -6.837600 4.330000
28.401800 1.037130 118.587000 -6.837600 4.650000
27.558000 -0.678651 122.324000 -6.837600 14.890000
28.598300 0.000000 122.530000 -6.837600 9.550000
29.406100 0.683315 122.780000 -6.837600 8.850000
30.455500 0.000000 122.969000 -6.837600 12.020000
29.606800 0.687980 123.618000 -6.837600 13.020000
28.983800 2.662450 124.181000 -6.837600 10.900000
29.084900 1.879970 124.614000 -6.837600 9.530000
29.179600 2.680440 125.020000 -6.837600 11.380000
28.313000 1.892630 125.675000 -6.837600 5.950000
28.406200 2.298710 126.089000 -6.837600 10.030000
28.495600 3.409200 126.486000 -6.837600 10.480000
28.598200 -1.509200 126.942000 -6.837600 10.380000
29.674600 -1.110420 127.141000 -6.837600 11.450000
29.773200 -0.708969 127.563000 -6.837600 11.930000
-5.145890 1.962260 133.465000 -6.837600 10.540000
-5.162230 2.382990 133.889000 -6.837600 9.960000
-5.178520 2.806370 134.312000 -6.837600 11.170000
29.734500 1.569170 131.986000 -6.837600 9.180000
29.826500 2.413640 132.394000 -6.837600 5.850000
29.803400 0.322835 135.952000 -6.837600 10.100000
29.895700 0.323835 136.373000 -6.837600 11.310000
29.110900 0.000000 137.864000 -6.837600 14.100000
29.199900 0.000000 138.286000 -6.837600 12.310000
30.449400 0.000000 138.899000 -6.837600 6.960000
29.822000 1.227690 141.232000 -6.837600 6.380000
29.911000 1.231360 141.654000 -6.837600 4.790000
31.187500 -0.337828 142.265000 -6.837600 6.480000
31.279700 -0.338827 142.686000 -6.837600 5.010000
30.268100 -0.339827 143.345000 -6.837600 5.810000
28.313700 1.804040 152.946000 -6.837600 5.930000
28.391000 2.291420 153.363000 -6.837600 7.700000
28.468000 2.781440 153.779000 -6.837600 9.650000
28.547800 2.304080 154.211000 -6.837600 5.750000
28.626300 2.310410 154.634000 -6.837600 4.620000
-3.361600 1.597020 12.829000 -6.304800 3.640000
-4.212950 1.492480 13.499000 -6.127200 2.820000
11.526400 0.169910 9.041750 -4.440000 3.590000
-4.070490 1.582760 13.984500 -6.127200 3.840000
11.775200 0.174907 9.421570 -4.528800 10.600000
-2.815320 1.582940 14.731600 -6.304800 4.330000
12.112000 0.131931 9.691060 -4.528800 12.200000
-2.809900 1.532710 15.178600 -6.304800 3.680000
12.544100 0.086289 9.840070 -4.528800 9.010000
-3.903040 1.575290 15.377700 -6.304800 3.990000
-2.316150 1.567460 16.133600 -6.393600 4.610000
-4.021460 1.608710 16.237300 -6.304800 4.620000
-3.994890 1.703010 16.679900 -6.304800 5.860000
-3.764590 1.745590 17.172700 -6.304800 4.930000
-4.437880 1.453690 17.484900 -6.304800 4.340000
-4.197790 1.488300 17.985400 -6.304800 6.170000
-3.440060 1.522910 18.582600 -6.393600 8.320000
-3.518240 1.557530 19.004900 -6.393600 6.700000
-2.660080 0.927217 20.490500 -6.482400 8.840000
-3.679560 0.946534 20.769500 -6.482400 7.350000
13.739100 0.516354 16.587900 -5.505600 9.790000
14.013900 0.526681 16.919600 -5.505600 6.530000
13.666400 0.406105 18.292800 -5.594400 11.090000
13.666400 0.406105 18.292800 -5.594400 15.340000
13.924300 0.413767 18.637900 -5.594400 15.460000
-2.455110 1.702660 23.510400 -6.482400 4.490000
14.182100 0.421430 18.983000 -5.683200 11.050000
-2.501320 1.510240 23.952800 -6.482400 9.280000
-3.625560 1.309710 24.256900 -6.482400 10.920000
-3.546430 1.332690 24.703400 -6.482400 10.500000
-3.462680 1.296780 25.152800 -6.482400 8.890000
-0.822558 1.280190 26.672400 -6.571200 9.040000
-2.815840 1.384690 26.964700 -6.482400 7.970000
-1.061270 1.321490 27.525500 -6.482400 9.120000
-1.078410 0.995949 27.970000 -6.482400 6.180000
14.485400 1.429460 28.370500 -6.127200 19.130000
16.562400 1.526040 29.701100 -6.038400 9.720000
0.229147 0.337158 39.640700 -6.571200 8.550000
0.231638 0.340822 40.071600 -6.571200 13.380000
0.234128 0.344487 40.502500 -6.571200 16.190000
-1.830810 1.854430 41.284200 -6.482400 8.680000
0.804509 1.873750 41.747500 -6.571200 10.960000
0.000000 1.912380 42.616200 -6.571200 7.800000
0.829391 1.931700 43.038700 -6.482400 9.680000
-27.151900 1.970340 34.505900 -5.061600 5.510000
17.482400 0.519724 41.259600 -6.304800 5.290000
17.650500 0.524721 41.656300 -6.304800 7.920000
17.818600 0.529718 42.053100 -6.304800 9.060000
1.540750 -0.115941 49.960500 -6.571200 6.880000
1.554030 -0.116940 50.391200 -6.571200 6.990000
1.567070 -0.904158 50.814000 -6.571200 7.530000
19.788500 2.158270 47.722900 -6.304800 6.460000
20.223700 2.581030 49.854900 -6.304800 6.730000
21.218000 0.480083 52.306100 -6.393600 6.380000
21.379300 0.659649 52.703800 -6.393600 7.970000
21.214100 2.569160 53.176700 -6.393600 7.940000
21.353100 3.613790 53.525300 -6.393600 9.380000
21.508200 3.820300 53.914100 -6.393600 8.330000
-15.736400 1.268260 58.669900 -6.216000 13.390000
-15.848000 1.277260 59.086000 -6.216000 8.070000
-15.958500 1.476770 59.498000 -6.216000 5.580000
-11.367300 2.028610 61.404300 -6.304800 6.670000
22.355600 2.267700 59.683400 -6.393600 8.500000
22.506600 2.283020 60.086700 -6.393600 9.700000
22.662200 1.898760 60.502100 -6.393600 9.850000
22.818200 1.358210 60.918400 -6.393600 7.240000
22.969300 1.367200 61.321900 -6.393600 13.730000
-15.340200 2.955500 64.050000 -6.304800 17.980000
-15.444400 2.564720 64.485300 -6.304800 13.800000
22.578400 -1.187670 62.846200 -6.393600 10.470000
22.239100 -0.363813 63.434000 -6.393600 8.640000
22.873300 -0.156920 63.667000 -6.393600 8.570000
-14.569600 2.420920 66.460900 -6.304800 6.750000
23.019000 -0.157919 64.072500 -6.393600 10.050000
-14.661800 2.436250 66.881500 -6.304800 8.630000
-14.752300 2.664650 67.294500 -6.304800 14.670000
23.601800 0.161917 65.694600 -6.482400 11.890000
23.237300 0.162917 66.281200 -6.482400 13.100000
22.994100 0.000000 66.822000 -6.482400 14.780000
23.134300 0.000000 67.229500 -6.482400 13.460000
23.274500 0.000000 67.636900 -6.482400 7.690000
25.926800 -12.577800 69.217700 -6.482400 5.480000
-33.217500 2.476300 68.611000 -5.772000 6.650000
-33.405200 2.490290 68.998600 -5.772000 5.890000
22.529600 3.633090 83.997000 -6.482400 9.270000
23.186500 2.557000 83.857800 -6.571200 7.600000
25.702800 0.203896 84.061700 -6.482400 5.150000
26.316400 0.478087 84.322000 -6.482400 7.410000
26.444700 0.480420 84.733400 -6.482400 7.140000
26.572500 0.758604 85.142900 -6.482400 7.180000
24.925300 1.310290 85.632900 -6.571200 8.540000
25.047500 0.762269 86.052700 -6.571200 10.790000
24.608300 2.658260 87.038100 -6.571200 13.750000
24.727600 2.389840 87.460100 -6.571200 10.290000
24.846200 2.189340 87.879700 -6.571200 10.570000
23.773400 1.632080 88.634300 -6.482400 11.800000
23.876200 2.993950 89.017600 -6.482400 12.430000
23.993500 2.220320 89.455000 -6.482400 16.090000
24.218400 1.951860 90.293400 -6.482400 16.400000
24.326900 2.469120 90.697900 -6.482400 8.010000
24.434000 3.063900 91.097400 -6.482400 9.580000
24.236800 2.810160 92.495800 -6.482400 8.870000
24.343700 3.119860 92.903600 -6.482400 14.780000
27.095600 -0.224885 93.089000 -6.571200 14.360000
27.216000 -0.225885 93.502700 -6.571200 9.610000
24.886900 3.493480 94.976600 -6.482400 9.590000
24.998700 3.203800 95.403200 -6.482400 9.230000
25.110200 2.911430 95.829000 -6.482400 13.030000
25.219400 2.924090 96.245600 -6.482400 13.500000
26.101800 3.897040 97.315600 -6.482400 10.590000
26.223900 2.661670 97.770700 -6.482400 11.500000
25.770800 2.122760 98.349900 -6.482400 9.350000
25.880000 2.131760 98.766600 -6.482400 7.920000
25.992100 1.506510 99.194300 -6.482400 12.540000
26.901800 -0.883206 100.298000 -6.482400 8.950000
27.014300 -0.241877 100.718000 -6.482400 9.970000
35.402700 0.242876 98.541900 -6.571200 7.680000
29.382700 0.894200 100.946000 -6.571200 5.570000
29.504100 0.244875 101.364000 -6.571200 7.220000
25.182500 2.842890 105.145000 -6.571200 7.390000
25.284300 2.602430 105.570000 -6.571200 8.700000
31.867400 2.612750 104.223000 -6.660000 8.060000
29.282300 -0.594694 105.904000 -6.571200 7.540000
26.829500 0.604023 108.329000 -6.482400 6.930000
26.933100 0.606355 108.747000 -6.482400 5.490000
27.029300 2.695370 109.135000 -6.482400 10.560000
27.132800 2.705700 109.553000 -6.482400 10.540000
27.236400 2.716020 109.972000 -6.482400 8.550000
27.340000 2.726350 110.390000 -6.482400 9.600000
27.448400 1.677420 110.828000 -6.482400 9.760000
27.552000 1.683750 111.246000 -6.482400 5.850000
31.233700 0.996814 112.962000 -6.571200 11.900000
31.348600 1.000480 113.377000 -6.571200 9.650000
31.463400 1.004140 113.793000 -6.571200 5.540000
32.347000 2.850280 114.409000 -6.571200 6.430000
31.144200 0.650665 116.115000 -6.482400 7.970000
31.256300 0.000000 116.533000 -6.482400 6.840000
31.814500 0.000000 118.614000 -6.482400 14.470000
31.926000 -0.285854 119.030000 -6.482400 10.410000
32.036600 -1.051780 119.442000 -6.482400 7.210000
33.265200 0.694976 124.023000 -6.482400 8.490000
33.823700 0.302845 126.105000 -6.482400 6.210000
34.909500 0.303845 126.256000 -6.571200 5.410000
34.046600 0.711301 126.936000 -6.482400 11.480000
-0.774560 1.968590 133.993000 -6.571200 5.070000
-0.777051 1.974920 134.424000 -6.571200 5.080000
-0.779573 1.564170 134.860000 -6.571200 5.620000
35.274500 0.736954 131.514000 -6.482400 7.780000
33.665600 1.191050 135.931000 -6.482400 9.870000
36.890100 0.347823 145.344000 -6.482400 4.960000
36.995600 0.813915 145.760000 -6.482400 5.280000
-3.617890 1.373830 10.513800 -6.038400 4.600000
-4.729060 1.426670 10.533600 -5.949600 4.130000
-3.415400 1.405420 11.486000 -6.216000 1.930000
-4.904210 1.479510 10.923800 -5.949600 2.800000
-3.537380 1.455610 11.896200 -6.216000 2.070000
-3.263820 1.556000 12.859200 -6.304800 2.830000
-3.471310 1.606190 13.247700 -6.304800 4.520000
-3.952080 1.492480 13.577700 -6.216000 5.540000
11.438800 0.169910 9.152380 -4.528800 3.610000
-3.962590 1.582760 14.015400 -6.216000 3.950000
12.112000 0.131931 9.691060 -4.528800 12.800000
-2.986090 1.484970 15.149700 -6.393600 1.700000
12.448900 0.036981 9.960580 -4.528800 10.780000
-4.432550 1.624350 15.228400 -6.216000 3.120000
-4.431670 1.668250 15.674600 -6.216000 3.990000
-3.230830 1.815520 16.391400 -6.482400 3.010000
-3.219550 1.703010 16.846800 -6.482400 5.000000
-3.302000 1.636810 17.278200 -6.482400 6.390000
-3.489180 1.411840 17.702100 -6.482400 5.320000
12.162100 0.773381 13.957000 -5.328000 4.010000
-3.466790 1.488300 18.140500 -6.482400 5.390000
12.192000 0.908522 14.491200 -5.416800 6.130000
-2.577820 1.479070 18.725200 -6.482400 5.470000
-2.489890 1.393090 19.179400 -6.482400 6.520000
-3.710230 1.485180 19.414300 -6.482400 4.630000
-3.793360 1.330030 19.849400 -6.482400 3.970000
-3.756830 1.358330 20.293700 -6.482400 3.910000
-2.024840 1.647150 20.952100 -6.571200 4.240000
-2.065130 1.813590 21.369000 -6.571200 6.540000
-2.106010 1.900650 21.792000 -6.571200 4.590000
13.684300 0.329154 17.739700 -5.594400 3.800000
13.525700 0.335484 18.398500 -5.683200 6.280000
13.599000 0.413767 18.876600 -5.772000 12.380000
13.851500 0.348143 19.227100 -5.772000 16.330000
-2.274810 1.556420 23.538700 -6.571200 15.990000
14.103400 0.354473 19.576700 -5.772000 5.890000
-2.177590 1.584720 23.979600 -6.571200 10.960000
-2.085710 1.782810 27.007700 -6.571200 9.710000
-0.530197 1.811110 27.513000 -6.660000 5.710000
14.528200 0.743550 27.402900 -6.127200 7.000000
14.943700 0.753877 27.669100 -6.127200 4.870000
15.312200 0.567015 27.963700 -6.127200 6.440000
-27.408900 2.241880 34.285400 -5.061600 6.670000
-27.418100 1.989650 34.844200 -5.150400 15.510000
17.311700 0.926461 40.856700 -6.393600 7.840000
17.479800 0.935456 41.253400 -6.304800 6.450000
21.216500 0.829214 52.302400 -6.393600 7.560000
21.380000 0.483748 52.705400 -6.393600 6.800000
20.824500 0.132932 53.392200 -6.393600 6.190000
21.087700 3.999800 54.067000 -6.393600 6.210000
21.292000 0.860864 54.590800 -6.393600 8.270000
20.828600 3.170880 55.606700 -6.482400 8.820000
-23.192700 -1.425140 54.736300 -5.860800 8.550000
-16.072200 1.445790 58.127600 -6.216000 5.590000
-16.187000 1.456120 58.542800 -6.216000 9.250000
-16.301800 1.466450 58.958000 -6.216000 5.930000
-16.417700 1.286250 59.377300 -6.216000 7.530000
-16.532500 1.295250 59.792600 -6.216000 6.690000
22.057900 1.848130 58.888700 -6.393600 11.650000
22.209000 1.860780 59.292000 -6.393600 19.420000
-38.889800 -3.597590 50.414900 -4.884000 18.950000
21.901200 1.676290 59.871100 -6.393600 14.070000
22.515900 1.340220 60.111600 -6.393600 6.760000
23.132800 1.349210 60.338500 -6.393600 6.980000
22.119500 3.138530 61.568700 -6.482400 5.260000
22.274000 2.548070 61.998700 -6.482400 8.140000
22.416800 2.769780 62.396200 -6.482400 7.170000
22.239100 -0.363813 63.434000 -6.482400 8.340000
22.382000 -0.156920 63.841400 -6.482400 7.460000
22.713300 0.377806 66.006200 -6.393600 20.150000
22.853500 0.380138 66.413600 -6.482400 19.720000
23.379600 0.382470 66.687000 -6.482400 15.090000
-12.392100 0.789580 66.940300 -19.180800 6.630000
23.521600 0.604685 67.092200 -6.482400 6.810000
23.664200 0.608349 67.498800 -6.482400 6.680000
23.806800 0.612014 67.905400 -6.482400 5.910000
-11.706300 0.804572 68.375400 -19.180800 8.880000
-11.779000 0.809569 68.800100 -19.180800 10.970000
21.356800 1.177360 77.240600 -6.571200 9.340000
21.920200 1.183690 77.530400 -6.571200 6.100000
20.531500 1.190020 78.355200 -6.482400 10.060000
20.637000 1.951820 78.757800 -6.482400 6.910000
22.100300 1.253320 82.396600 -6.571200 6.800000
25.070200 1.259650 81.992700 -6.571200 8.630000
25.196200 1.265980 82.404700 -6.571200 6.910000
25.323200 1.004470 82.820100 -6.571200 8.190000
22.646500 3.110430 84.433000 -6.571200 8.010000
25.046800 1.039450 86.050100 -6.571200 7.450000
24.500800 0.765934 86.657900 -6.571200 5.310000
24.615000 1.609100 87.061900 -6.571200 7.010000
24.730800 1.897900 87.471200 -6.571200 6.000000
24.848000 1.906890 87.885800 -6.571200 7.050000
24.454300 1.915880 88.443200 -6.571200 9.790000
23.870900 3.563960 88.998000 -6.571200 9.870000
23.979500 3.866910 89.402700 -6.571200 7.800000
24.795600 2.446470 89.677400 -6.571200 8.320000
23.696000 1.951860 90.431900 -6.571200 8.180000
23.805200 1.960860 90.848600 -6.571200 9.170000
24.238900 2.514430 92.503800 -6.571200 12.380000
24.346000 2.822820 92.912500 -6.571200 11.780000
24.452800 3.133850 93.320200 -6.571200 9.080000
25.834900 -1.424220 93.436200 -6.571200 9.020000
27.216000 -0.225885 93.502700 -6.571200 5.820000
27.336100 -0.529394 93.915400 -6.571200 11.300000
26.712200 3.493480 94.479500 -6.571200 10.500000
25.554400 2.593710 95.274400 -6.571200 7.230000
25.221600 2.616370 96.253900 -6.571200 12.230000
26.633900 2.395880 96.325800 -6.571200 13.830000
28.889600 3.038020 99.252400 -6.571200 14.190000
26.074700 1.557150 102.733000 -6.571200 13.130000
25.584000 1.563480 103.300000 -6.660000 9.870000
29.739400 26.785600 100.014000 -6.571200 11.950000
26.091000 3.525580 105.347000 -6.571200 9.520000
26.199300 2.865540 105.784000 -6.571200 7.700000
26.304300 2.623080 106.208000 -6.571200 8.640000
29.397500 0.000000 106.321000 -6.571200 6.210000
29.512300 0.256869 106.736000 -6.571200 11.450000
28.191500 2.392610 111.073000 -6.571200 7.580000
28.285800 4.091050 111.444000 -6.571200 5.030000
27.096300 1.349280 113.136000 -6.571200 5.800000
27.196700 1.354280 113.555000 -6.571200 7.350000
31.033000 -0.277858 115.700000 -6.571200 10.890000
31.144600 -0.278858 116.117000 -6.571200 12.750000
31.256200 -0.279857 116.533000 -6.571200 10.340000
31.367900 -0.280857 116.949000 -6.571200 8.230000
31.479500 0.281856 117.365000 -6.571200 10.290000
32.495900 1.414250 117.527000 -6.571200 9.600000
32.367500 2.222080 120.676000 -6.571200 10.110000
32.483100 1.066440 121.107000 -6.571200 8.180000
32.002000 -0.292851 122.130000 -6.571200 8.550000
32.324600 2.268060 123.361000 -6.571200 4.540000
32.437800 1.088430 123.793000 -6.571200 4.650000
32.547000 -1.092100 124.210000 -6.660000 6.470000
32.655200 -1.494210 124.623000 -6.571200 6.200000
32.224700 -1.114090 126.963000 -6.571200 17.130000
32.330700 -1.117750 127.381000 -6.571200 14.660000
32.755400 0.720629 129.054000 -6.571200 8.940000
-4.919410 -0.539372 7.055380 -5.239200 1.800000
-5.117820 0.104944 7.461870 -5.328000 11.820000
-5.421620 0.109942 7.775640 -5.328000 14.540000
-5.605410 0.084289 8.172780 -5.328000 12.650000
-4.130140 1.498060 10.772900 -6.127200 1.690000
-4.196880 1.553550 11.204500 -6.127200 4.710000
-4.345000 1.647350 11.600000 -6.127200 2.160000
-3.414960 1.704150 12.350800 -6.216000 2.180000
-3.903320 1.606190 13.126900 -6.216000 3.760000
-3.649680 1.606190 13.199700 -6.304800 2.140000
-3.766060 1.579920 13.620600 -6.304800 4.020000
-3.961240 1.627800 14.010700 -6.304800 4.070000
11.665800 0.128266 9.557360 -4.617600 11.240000
-4.085500 1.397280 14.450200 -6.304800 5.220000
11.999200 0.131931 9.830430 -4.617600 13.630000
-2.899320 1.437200 15.171100 -6.393600 5.690000
12.332500 0.135596 10.103500 -4.617600 11.750000
-3.692940 1.673390 15.419200 -6.393600 4.170000
12.565200 0.139261 10.498100 -4.706400 4.630000
-3.703490 1.617860 15.867600 -6.393600 2.590000
-3.456000 1.608710 16.367000 -6.482400 4.330000
-3.448520 1.596890 16.811800 -6.482400 5.670000
-3.402780 1.582400 17.263700 -6.482400 6.070000
-3.281990 1.565240 17.728800 -6.482400 7.080000
12.120300 1.716660 13.909100 -5.328000 6.760000
-3.953570 1.559690 18.034700 -6.482400 9.840000
-4.047550 1.479070 18.463400 -6.482400 6.800000
-2.228820 1.632230 19.192700 -6.482400 6.030000
-3.712650 1.301730 19.427000 -6.482400 4.610000
-3.905480 1.517470 19.814100 -6.571200 3.880000
12.913700 0.303834 16.153600 -5.594400 6.000000
-3.600310 1.358330 20.322100 -6.482400 6.980000
13.182800 0.310164 16.490100 -5.594400 12.170000
-3.672910 1.582040 20.731900 -6.482400 5.610000
13.451800 0.316494 16.826700 -5.594400 13.030000
-2.927290 1.863390 21.263700 -6.571200 5.570000
13.720100 0.390780 17.162300 -5.594400 9.300000
-2.106430 1.849860 21.796400 -6.571200 7.090000
13.269800 0.398443 18.050400 -5.683200 5.200000
-3.300490 1.886140 22.082000 -6.571200 5.390000
13.525700 0.335484 18.398500 -5.772000 12.860000
13.599700 0.341814 18.877500 -5.772000 16.850000
13.850800 0.421430 19.226100 -5.772000 16.330000
-3.670080 -2.049720 23.323700 -6.571200 8.130000
14.102600 0.429092 19.575700 -5.772000 11.110000
-3.865830 -2.606900 23.675600 -6.571200 9.660000
-1.410680 -2.653460 24.376800 -6.571200 9.220000
-0.484938 -3.585180 25.164400 -6.571200 7.590000
-1.970800 -3.645940 25.519600 -6.571200 7.430000
-1.696120 1.115110 26.638600 -6.571200 11.320000
-1.723480 1.133090 27.068200 -6.571200 8.130000
-2.859700 1.555710 27.384800 -6.571200 11.530000
-2.904380 1.580020 27.812700 -6.571200 5.830000
15.477600 1.445380 25.848800 -6.038400 6.990000
15.496100 1.466020 26.338300 -6.038400 5.170000
15.714400 1.486670 26.709300 -6.038400 4.390000
14.514500 0.826817 27.894500 -6.127200 4.490000
14.713400 0.838143 28.276700 -6.127200 5.860000
13.443700 1.035290 28.895500 -6.216000 5.080000
13.857800 -0.174910 29.195000 -6.216000 5.450000
14.042800 -0.075961 29.584700 -6.216000 7.060000
14.227400 0.179574 29.973600 -6.216000 4.950000
14.176400 0.493731 30.470200 -6.216000 10.350000
16.999400 0.377470 40.996400 -6.482400 8.830000
-25.597800 2.285840 36.712200 -5.239200 5.420000
17.164400 0.381135 41.394400 -6.482400 15.710000
0.522607 1.888490 45.202000 -6.748800 9.510000
0.879847 0.953445 45.657000 -6.748800 7.180000
-20.508800 0.447100 48.402200 -6.127200 6.720000
20.667900 0.131933 52.990700 -6.482400 5.600000
20.822300 0.841874 53.386600 -6.482400 6.490000
20.978800 0.848204 53.788000 -6.482400 6.880000
21.135400 0.854534 54.189400 -6.482400 6.560000
19.811800 0.860864 55.145200 -6.393600 5.690000
20.698200 1.734200 55.258600 -6.393600 9.320000
20.849200 1.746860 55.661900 -6.393600 8.580000
-23.684300 -0.694631 55.009100 -5.949600 6.900000
-23.852500 -1.072730 55.399800 -5.949600 7.870000
-16.522700 1.784830 58.439800 -6.304800 8.380000
-16.639900 1.797490 58.854300 -6.304800 6.160000
-16.755500 2.000630 59.263100 -6.304800 10.330000
-16.064500 2.206410 59.893400 -6.393600 9.860000
21.464300 0.338159 58.676900 -6.393600 15.530000
21.612400 0.340492 59.081600 -6.393600 18.050000
22.217100 0.734609 59.313700 -6.393600 15.310000
21.701600 1.538740 60.405600 -6.482400 8.760000
21.847300 1.549060 60.811000 -6.482400 9.660000
21.802400 1.936730 62.188200 -6.482400 7.470000
22.428600 1.744240 62.429000 -6.482400 17.490000
22.096800 0.154921 63.028100 -6.482400 19.480000
22.239400 -0.155920 63.434700 -6.482400 16.250000
22.381700 -0.366145 63.840600 -6.482400 7.470000
22.504900 2.841730 64.192200 -6.482400 7.560000
22.952200 0.160918 65.467900 -6.393600 9.770000
22.713600 0.161917 66.006900 -6.482400 10.240000
22.853800 -0.162917 66.414400 -6.482400 19.470000
22.993700 -0.382470 66.821000 -6.482400 13.990000
23.133900 -0.384802 67.228500 -6.482400 10.260000
-21.609200 -1.817570 72.671900 -6.304800 16.880000
-33.759500 1.120390 68.381600 -5.772000 8.180000
-33.950200 1.126720 68.768000 -5.772000 9.010000
-22.966900 -2.504280 73.589800 -6.216000 6.880000
20.754200 2.354460 77.377800 -6.571200 6.440000
24.591100 1.931160 76.709900 -6.482400 6.360000
25.169700 1.691020 76.981300 -6.482400 9.490000
25.899300 1.700010 77.193400 -6.482400 7.590000
21.653800 1.228000 80.732000 -6.571200 6.580000
22.101200 0.989474 82.400000 -6.571200 6.990000
24.438500 0.994471 82.186900 -6.571200 7.680000
24.561300 0.999469 82.599900 -6.571200 6.560000
24.683100 1.272310 83.009500 -6.571200 8.500000
17.975100 2.557000 85.127200 -6.571200 7.420000
23.291000 3.651080 84.235800 -6.571200 5.280000
24.566700 0.203896 84.400700 -6.571200 8.520000
24.686300 0.751275 84.811600 -6.571200 10.200000
23.768100 1.310290 85.961300 -6.571200 5.210000
24.377400 2.148030 86.221600 -6.571200 5.950000
23.997700 1.322950 86.791800 -6.571200 6.370000
24.106800 2.378510 87.186400 -6.571200 8.420000
24.223000 2.179010 87.606600 -6.571200 7.980000
24.337800 2.189340 88.021800 -6.571200 7.170000
23.772000 1.915880 88.629000 -6.571200 6.490000
22.673400 2.993950 89.331500 -6.571200 6.550000
22.783500 2.435150 89.765300 -6.571200 11.150000
22.367700 2.446470 90.313600 -6.571200 13.580000
22.474200 1.951860 90.743300 -6.571200 11.960000
22.579100 1.670390 91.166900 -6.571200 10.920000
22.682700 1.678060 91.585100 -6.571200 10.800000
24.651700 3.680540 91.909100 -6.571200 14.860000
23.523200 2.810160 92.679900 -6.571200 15.340000
23.090600 2.822820 93.232400 -6.571200 12.230000
23.735100 2.835480 93.514800 -6.571200 10.580000
26.377300 -0.224885 93.295100 -6.571200 12.370000
26.494300 -0.527062 93.708600 -6.571200 13.030000
26.611800 -0.226884 94.124400 -6.571200 14.080000
23.614800 1.747020 95.348900 -6.571200 17.900000
24.268500 2.364900 95.616000 -6.571200 17.870000
24.374400 2.375230 96.033600 -6.571200 13.430000
24.476900 2.924090 96.437200 -6.571200 10.780000
25.328600 2.936750 96.662300 -6.571200 9.260000
24.681000 3.880390 97.241400 -6.571200 8.330000
24.786900 3.897040 97.658800 -6.571200 13.210000
24.895700 3.600740 98.087400 -6.571200 12.790000
24.629700 4.597450 99.446500 -6.571200 12.850000
25.324600 3.025360 99.777000 -6.571200 15.480000
25.856600 2.763610 101.873000 -6.571200 9.580000
24.687700 1.229350 103.079000 -6.571200 9.350000
24.788100 1.234340 103.498000 -6.571200 7.700000
25.997000 1.923250 104.967000 -6.571200 12.580000
25.287600 1.930910 105.584000 -6.571200 14.990000
25.387900 1.938580 106.003000 -6.571200 13.350000
28.576800 0.597026 106.543000 -6.571200 8.180000
28.688400 0.599358 106.959000 -6.571200 6.530000
27.349200 0.601691 107.754000 -6.571200 8.150000
26.820600 2.933500 108.293000 -6.571200 8.910000
26.919200 3.637510 108.691000 -6.571200 7.390000
26.185800 2.956150 109.334000 -6.571200 8.610000
26.291100 2.007540 109.773000 -6.571200 9.220000
26.388000 2.716020 110.178000 -6.571200 7.470000
26.148900 0.978490 112.035000 -6.571200 6.750000
26.895600 1.339290 112.298000 -6.571200 11.970000
30.363700 0.277858 115.878000 -6.571200 10.510000
30.471900 1.022470 116.291000 -6.571200 10.340000
30.581100 1.026130 116.708000 -6.571200 11.000000
30.800200 0.657662 117.544000 -6.571200 7.810000
30.906500 1.791360 117.950000 -6.571200 5.910000
30.847800 0.000000 121.538000 -6.571200 5.560000
30.952700 1.070110 121.951000 -6.571200 7.270000
32.109100 1.469220 122.539000 -6.571200 6.160000
32.220000 0.687980 122.962000 -6.571200 11.110000
31.695800 0.298847 124.879000 -6.660000 10.130000
32.860700 -1.136070 129.469000 -6.571200 8.050000
-4.971620 -0.592563 7.014400 -5.239200 6.710000
-5.220200 -0.622192 7.365120 -5.239200 13.330000
-5.420800 0.197885 7.774470 -5.239200 15.220000
-3.800120 1.776890 10.388400 -6.127200 2.040000
-3.889020 1.747470 10.824900 -6.127200 2.610000
-3.950050 1.738370 11.267000 -6.216000 3.900000
-4.027140 1.723940 11.703100 -6.216000 3.150000
-3.910160 1.743780 12.197400 -6.304800 2.600000
-4.040490 1.801900 12.604000 -6.304800 2.940000
-4.205970 1.700060 13.476600 -6.304800 3.130000
-3.686920 1.751570 14.070500 -6.393600 2.530000
11.059200 0.169910 9.607620 -4.795200 2.520000
-3.493320 1.582940 14.585700 -6.393600 3.190000
11.572900 0.174907 9.669010 -4.706400 10.740000
-4.111190 1.628160 14.868800 -6.393600 3.530000
11.903900 0.131931 9.945580 -4.706400 13.270000
-4.013710 1.857160 15.317600 -6.393600 2.780000
12.234600 0.135596 10.221800 -4.706400 11.370000
-3.270990 1.768970 15.946300 -6.393600 3.820000
12.565200 0.139261 10.498100 -4.706400 4.170000
-4.016370 1.815520 16.216800 -6.393600 2.930000
-2.163780 1.636810 17.457300 -6.482400 3.480000
-1.734710 1.523420 17.949900 -6.482400 3.100000
12.065100 1.788170 13.370300 -5.328000 6.840000
-3.814450 1.559690 18.064600 -6.482400 9.110000
12.352400 1.830740 13.688700 -5.328000 7.990000
-3.797450 1.522910 18.512900 -6.482400 11.090000
-3.993880 1.512690 18.914300 -6.482400 8.290000
11.590300 0.989067 15.513800 -5.594400 4.210000
-3.406550 1.626750 19.897400 -6.482400 6.500000
-3.479030 1.661360 20.320700 -6.482400 9.290000
11.696800 0.367793 17.054100 -5.683200 5.680000
-3.552160 1.647150 20.747900 -6.482400 7.730000
13.054600 0.375456 16.590400 -5.594400 10.290000
13.451100 0.383118 16.825800 -5.505600 10.840000
13.587500 0.390780 17.267600 -5.594400 7.000000
13.452300 0.485717 18.979700 -5.772000 14.170000
13.701400 0.494712 19.331100 -5.772000 17.070000
-2.376780 0.467404 26.173000 -6.660000 11.600000
-2.774450 0.392453 26.568400 -6.660000 8.160000
-2.975330 0.314833 26.981300 -6.660000 9.690000
15.013700 2.105110 25.074200 -6.038400 10.050000
15.234500 2.136070 25.443000 -6.038400 6.060000
15.851400 2.167030 25.570400 -6.038400 6.630000
13.885800 2.356920 28.126400 -6.216000 5.460000
14.062800 2.757810 28.484900 -6.216000 4.620000
14.495600 -0.481071 29.361600 -6.216000 5.660000
14.687900 0.076961 29.751100 -6.216000 6.770000
15.051600 0.389793 30.049000 -6.216000 8.460000
15.245100 0.289516 30.435200 -6.216000 8.510000
0.000000 0.818524 39.203400 -6.660000 15.160000
-0.229105 0.827518 39.633500 -6.660000 13.150000
-0.231595 0.836513 40.064300 -6.660000 12.070000
-0.468192 0.720262 40.495500 -6.660000 7.260000
-2.600420 0.981073 40.841000 -6.660000 9.830000
-21.298100 0.474748 34.955400 -5.505600 11.120000
-0.238807 2.110010 41.311900 -6.660000 8.030000
-2.973460 2.131990 41.636900 -6.660000 4.820000
1.708460 1.852520 44.311100 -6.748800 13.770000
-1.380160 1.870500 44.753300 -6.660000 6.980000
-25.864000 1.468990 37.093900 -5.239200 15.160000
17.493200 0.670967 42.187400 -6.393600 8.140000
17.658300 0.677297 42.585400 -6.482400 10.800000
15.661300 2.417720 44.671500 -6.482400 9.070000
0.969459 -3.155330 50.307100 -6.660000 6.140000
0.977745 -3.182300 50.737100 -6.660000 6.530000
19.260700 1.981830 47.480900 -6.393600 8.000000
19.422600 1.998480 47.879900 -6.393600 13.900000
19.588700 1.692840 48.289600 -6.393600 8.260000
19.468800 1.706830 48.802000 -6.482400 7.770000
19.607500 2.989890 49.149600 -6.482400 5.540000
-25.661500 0.454430 46.863800 -5.594400 10.000000
18.366500 -0.480083 53.374200 -6.482400 10.640000
21.075400 0.307842 52.829200 -6.482400 5.860000
20.822300 0.841874 53.386600 -6.482400 9.460000
20.663900 1.383830 53.898700 -6.482400 6.240000
18.071700 1.529040 55.272100 -6.482400 5.900000
18.632500 1.721540 55.534700 -6.482400 7.140000
19.183400 3.011160 55.748200 -6.482400 8.460000
20.094700 1.930680 55.932700 -6.482400 7.900000
-24.350700 -1.057410 54.239400 -5.949600 7.890000
20.240300 1.944670 56.338000 -6.482400 7.050000
-16.634600 2.364870 58.835700 -6.304800 7.600000
-16.751800 2.381530 59.250100 -6.304800 10.090000
-16.870900 2.206410 59.671300 -6.304800 7.660000
-16.640400 2.221730 60.182800 -6.304800 6.730000
21.543400 2.661870 59.965100 -6.482400 10.590000
21.236900 1.340220 60.575300 -6.482400 12.300000
21.848800 1.349210 60.815200 -6.482400 11.050000
21.519200 1.710270 61.380500 -6.482400 7.290000
21.655500 2.328990 61.769300 -6.482400 6.910000
21.438200 2.344310 62.300600 -6.571200 6.740000
21.575800 2.564720 62.700600 -6.482400 6.970000
21.716000 2.581380 63.107800 -6.571200 6.750000
21.380400 -0.779585 63.724800 -6.571200 18.200000
21.518100 -0.575367 64.135300 -6.571200 18.030000
21.653600 -1.000120 64.539200 -6.571200 11.200000
-15.565700 2.012690 66.691100 -6.393600 14.600000
-15.665800 1.652330 67.120200 -6.393600 11.600000
-15.763700 1.662660 67.539700 -6.393600 9.060000
21.959000 -1.038100 67.161300 -6.571200 10.700000
22.613000 -1.044430 67.398500 -6.571200 17.830000
22.750000 -1.050760 67.807000 -6.571200 11.090000
22.887100 -1.057090 68.215500 -6.571200 15.900000
-22.170200 -1.583080 72.508200 -6.304800 10.630000
-22.296200 -1.592070 72.920200 -6.304800 11.400000
-33.753400 1.827890 68.369400 -5.772000 7.420000
-33.944100 1.838220 68.755600 -5.772000 10.280000
20.968100 3.381290 78.175400 -6.660000 17.890000
21.799500 3.417270 78.841400 -6.571200 15.570000
21.528400 3.214230 80.264500 -6.660000 10.100000
21.640000 3.230880 80.680400 -6.660000 6.530000
21.282400 3.247540 81.220700 -6.660000 8.980000
23.326800 1.259650 82.505600 -6.660000 8.320000
24.082500 1.265980 82.737100 -6.571200 6.710000
24.201600 1.540130 83.146600 -6.571200 6.900000
21.500500 3.651080 84.710500 -6.660000 11.260000
24.558300 2.310560 84.371800 -6.571200 11.700000
24.678600 2.321880 84.785400 -6.571200 7.000000
24.800500 2.127380 85.203900 -6.571200 6.320000
24.920900 2.137710 85.617500 -6.571200 7.520000
23.550100 1.616760 87.802100 -6.660000 7.910000
23.657300 2.401170 88.201700 -6.660000 5.240000
23.764600 2.979960 88.601600 -6.660000 5.610000
23.356100 3.563960 89.134500 -6.660000 5.630000
22.774300 3.580620 89.729200 -6.660000 6.480000
22.877400 3.884890 90.135300 -6.660000 13.200000
22.464900 3.324940 90.705700 -6.660000 14.800000
22.570800 3.049910 91.133200 -6.660000 12.480000
22.676500 2.772190 91.560100 -6.660000 11.510000
23.621700 3.713850 93.068000 -6.660000 12.350000
23.727700 3.730500 93.485300 -6.660000 10.460000
23.293100 3.447520 94.049600 -6.660000 11.600000
26.493700 0.828235 93.706600 -6.660000 11.560000
26.610900 0.831900 94.121200 -6.660000 13.330000
26.728100 0.835564 94.535900 -6.660000 17.000000
23.709600 3.203800 95.731700 -6.660000 15.660000
23.813200 3.217800 96.149800 -6.660000 10.450000
23.916700 3.231790 96.567800 -6.660000 10.960000
24.840000 4.316550 100.296000 -6.660000 15.320000
24.936600 4.976220 100.686000 -6.660000 12.160000
28.241100 2.540460 102.139000 -6.571200 13.450000
24.672200 2.854220 105.708000 -6.660000 11.140000
24.770100 2.865540 106.128000 -6.660000 7.730000
24.868000 2.876870 106.547000 -6.660000 11.910000
24.967400 2.633410 106.973000 -6.660000 12.660000
25.685700 2.643730 107.246000 -6.660000 9.450000
28.065600 1.969230 107.108000 -6.660000 8.250000
28.173200 2.320650 107.518000 -6.660000 8.980000
25.982900 3.278520 108.487000 -6.660000 7.700000
26.078000 3.983800 108.884000 -6.660000 7.300000
27.019900 3.999120 109.098000 -6.660000 8.390000
25.744500 3.679480 110.302000 -6.660000 8.500000
25.842400 3.693470 110.722000 -6.660000 9.270000
25.940300 3.707460 111.141000 -6.660000 8.420000
28.194600 1.683750 111.085000 -6.660000 9.220000
28.301800 1.334290 111.507000 -6.660000 7.630000
29.781300 2.527530 117.336000 -6.660000 5.790000
29.887200 2.536520 117.754000 -6.660000 11.460000
30.448900 2.644460 122.943000 -6.660000 12.630000
30.552400 2.653460 123.361000 -6.660000 15.440000
30.763000 1.879970 124.211000 -6.660000 15.660000
30.865000 2.283380 124.623000 -6.660000 9.970000
30.968600 2.291050 125.041000 -6.660000 7.410000
31.070300 2.698430 125.452000 -6.660000 9.370000
32.106000 2.788380 129.633000 -6.660000 10.480000
32.214400 1.554170 130.071000 -6.660000 11.100000
-2.589890 2.390660 134.395000 -6.660000 10.850000
-2.598190 2.398320 134.825000 -6.660000 8.790000
-2.606160 3.242700 135.239000 -6.660000 9.010000
31.924800 2.063540 136.782000 -6.660000 6.880000
32.022700 2.069870 137.202000 -6.660000 8.950000
32.215600 4.100110 152.568000 -6.660000 7.690000
32.304600 4.111430 152.989000 -6.660000 11.020000
32.395500 3.759060 153.420000 -6.660000 8.760000
31.600300 2.310410 154.054000 -6.748800 7.580000
31.686900 2.316740 154.476000 -6.748800 10.750000
-4.927660 0.206542 7.067210 -5.328000 7.500000
-5.174400 0.188890 7.421080 -5.328000 14.950000
-5.420800 0.197885 7.774470 -5.328000 17.060000
-5.666810 0.237523 8.127290 -5.328000 14.920000
-5.836710 -0.679165 8.510010 -5.328000 7.970000
-4.117560 1.747470 10.740100 -6.127200 3.680000
-4.338370 1.738370 11.123200 -6.127200 2.680000
-4.495310 1.762210 11.525600 -6.127200 0.890000
-3.819980 1.817760 13.123800 -6.393600 3.720000
-3.840940 1.700060 13.585200 -6.393600 4.910000
-3.957330 1.751570 13.996800 -6.393600 3.630000
11.573200 0.128266 9.669310 -4.795200 10.340000
11.903900 0.131931 9.945580 -4.795200 13.370000
-4.102180 1.857160 15.294200 -6.393600 3.510000
12.234600 0.135596 10.221800 -4.795200 11.900000
12.565200 0.139261 10.498100 -4.795200 5.140000
-2.731000 1.854300 17.355800 -6.660000 3.440000
-2.900340 1.899530 17.762600 -6.660000 6.440000
11.874100 0.923129 13.626600 -5.505600 5.220000
-3.949430 1.773710 18.015800 -6.571200 10.100000
12.021900 0.945108 14.067500 -5.594400 5.990000
-3.901320 1.698190 18.476000 -6.571200 10.580000
-3.989980 1.736780 18.895900 -6.571200 7.730000
11.545000 1.975560 15.453200 -5.772000 4.280000
-2.805370 1.775380 19.541400 -6.660000 5.660000
-2.984090 1.626750 19.965100 -6.660000 3.960000
-3.322310 1.661360 20.346900 -6.660000 7.610000
12.631700 0.303834 16.375100 -5.683200 9.380000
-3.268810 1.891160 20.773600 -6.660000 6.780000
12.894200 0.375456 16.715400 -5.683200 14.340000
-3.335530 1.929760 21.197600 -6.660000 5.350000
13.157300 0.383118 17.056500 -5.683200 14.640000
13.420500 0.390780 17.397700 -5.683200 10.260000
12.954800 0.398443 18.277800 -5.860800 5.410000
13.204000 0.406105 18.629300 -5.860800 14.900000
13.453100 0.413767 18.980800 -5.860800 17.600000
13.702200 0.421430 19.332300 -5.860800 15.830000
-2.962920 1.435750 23.904700 -6.660000 7.960000
13.952100 0.354473 19.684800 -5.860800 8.600000
-2.689060 1.176950 24.385300 -6.748800 10.540000
-2.593130 1.120390 24.832000 -6.748800 12.280000
-2.781670 1.512670 25.225100 -6.748800 11.770000
-2.828820 1.538310 25.652700 -6.748800 8.640000
-1.870950 1.015900 26.198500 -6.748800 10.230000
-1.858300 -5.758820 26.021500 -6.748800 9.340000
-0.817114 -5.851700 26.495900 -6.748800 8.770000
14.807700 1.628640 24.730000 -6.127200 4.490000
15.033000 1.494590 25.106500 -6.127200 6.590000
14.670900 1.057240 25.838800 -6.216000 8.650000
14.685200 0.792838 26.334800 -6.216000 10.220000
15.102400 0.638628 26.598800 -6.216000 8.000000
15.931200 0.911405 26.606500 -6.127200 4.900000
-7.642310 2.487530 30.857100 -22.644000 11.090000
13.880900 1.429460 28.671100 -6.393600 6.640000
-7.747420 2.421490 31.281500 -22.644000 15.930000
14.068500 1.448780 29.058600 -6.393600 6.660000
-7.848860 2.554770 31.691100 -22.644000 16.510000
-7.959220 2.178990 32.136700 -22.644000 13.230000
-7.186890 1.792240 32.783900 -22.821600 9.150000
-7.279030 1.815210 33.204200 -22.821600 8.750000
3.476230 2.041870 35.970400 10.744800 6.490000
3.518210 1.953080 36.404800 10.744800 8.000000
3.559600 1.976060 36.833100 10.744800 6.480000
6.383750 2.607280 37.286900 10.744800 6.520000
6.167970 2.400210 37.774700 10.744800 11.710000
6.238450 2.307460 38.206300 10.744800 14.210000
-0.453191 0.939765 39.198000 -6.837600 15.830000
-20.352500 1.409650 33.990300 -5.594400 12.280000
-20.573700 1.424970 34.359800 -5.594400 10.580000
-25.993300 2.260650 30.416100 -4.884000 15.010000
-26.567700 2.284960 30.488600 -4.884000 7.590000
-26.556800 2.182850 31.075500 -4.884000 15.700000
-26.036900 2.333570 32.059500 -4.972800 5.120000
-25.751300 2.382190 33.382800 -5.150400 10.350000
-26.018500 2.274760 33.729200 -5.150400 10.250000
-26.018000 2.297740 34.271500 -5.150400 4.990000
-25.741500 2.320720 35.015100 -5.239200 8.590000
-1.353620 1.834530 43.892600 -6.837600 9.720000
0.256331 1.852520 44.343300 -6.837600 5.170000
0.000000 1.593520 44.785300 -6.837600 5.190000
16.843700 0.658308 41.522500 -6.482400 14.920000
0.000000 1.608840 45.215900 -6.837600 5.220000
17.005600 0.664638 41.921700 -6.482400 15.520000
17.168300 0.529718 42.322700 -6.482400 6.920000
15.521300 2.250660 44.272200 -6.571200 9.240000
15.661300 2.417720 44.671500 -6.571200 6.110000
-18.449100 2.050360 45.480300 -6.127200 8.280000
-1.239370 -2.642400 49.467500 -6.837600 5.700000
-18.611000 2.068350 45.879200 -6.127200 7.100000
1.250150 -2.665380 49.897600 -6.837600 5.600000
-18.772800 2.086330 46.278200 -6.127200 7.490000
18.981000 2.298720 47.579200 -6.482400 6.690000
19.417500 2.318040 47.867600 -6.482400 5.980000
19.090100 1.869320 48.945400 -6.571200 6.080000
-25.248500 0.000000 46.109600 -5.772000 8.390000
19.588000 3.807780 49.100800 -6.482400 12.730000
-25.454500 -0.450765 46.485900 -5.772000 6.750000
19.747300 3.838730 49.500000 -6.482400 8.270000
-24.658000 -1.115350 47.388600 -5.860800 15.210000
-24.862200 -0.124936 47.781000 -5.860800 8.710000
-25.061100 -0.125936 48.163300 -5.860800 7.760000
-25.260000 -0.126935 48.545500 -5.772000 6.660000
20.514200 0.664647 53.508200 -6.571200 7.390000
20.252300 0.669644 54.068200 -6.571200 8.250000
20.822700 0.674641 54.312800 -6.571200 5.700000
21.121400 1.916690 55.092100 -6.571200 7.620000
20.092600 2.114480 55.926800 -6.571200 6.600000
20.238200 2.129800 56.332100 -6.571200 7.560000
20.383800 2.145120 56.737400 -6.660000 7.970000
20.529400 2.160440 57.142600 -6.571200 6.100000
-16.969200 2.160440 58.299000 -6.393600 7.340000
-17.089600 2.175770 58.712500 -6.393600 5.570000
-17.207900 2.381530 59.119200 -6.393600 9.120000
-17.669900 2.589930 59.424100 -6.393600 8.510000
-16.636400 2.607910 60.168400 -6.393600 5.570000
21.612400 0.340492 59.081600 -6.571200 10.600000
21.760400 0.342824 59.486300 -6.571200 13.390000
21.552900 1.873440 59.991500 -6.571200 14.520000
21.698500 1.886100 60.396900 -6.571200 20.650000
21.842000 2.098560 60.796400 -6.571200 21.390000
21.985300 2.313670 61.195300 -6.571200 17.730000
21.650300 2.733810 61.754500 -6.571200 9.050000
21.792800 2.751800 62.160800 -6.571200 7.460000
22.012600 0.000000 63.969900 -6.660000 13.990000
22.152000 -0.579031 64.375000 -6.660000 6.580000
-15.945900 2.647990 66.579000 -6.482400 12.110000
-16.049700 2.238470 67.012500 -6.482400 6.950000
-12.620300 2.466890 68.172700 -19.447200 8.330000
-21.865500 -9.358270 65.170500 -6.304800 9.610000
-12.698700 2.482210 68.596200 -19.358400 11.940000
22.752500 0.000000 67.814300 -6.660000 19.680000
23.807600 0.000000 67.907900 -6.571200 7.470000
-34.148100 1.827890 68.173100 -5.860800 6.640000
21.528400 3.214230 80.264500 -6.748800 8.650000
21.173300 3.230880 80.804200 -6.748800 7.840000
21.621300 1.780960 82.513900 -6.748800 6.790000
24.078100 2.065420 82.722200 -6.660000 9.140000
24.200200 1.807950 83.141600 -6.660000 8.480000
21.503200 3.380770 84.721100 -6.748800 6.700000
24.548400 3.397420 84.337900 -6.660000 8.000000
24.022400 2.594970 84.965700 -6.748800 5.620000
24.141600 2.333210 85.387600 -6.748800 7.280000
22.703800 3.187040 86.645300 -6.748800 6.200000
23.328100 1.322950 86.974200 -6.748800 5.320000
24.617300 1.049440 87.069800 -6.660000 5.270000
23.043400 1.335600 87.941200 -6.748800 7.590000
23.150000 1.906890 88.348200 -6.748800 11.880000
23.257600 2.199670 88.758800 -6.748800 11.720000
22.675500 2.708900 89.340100 -6.748800 6.990000
22.781500 2.721560 89.757500 -6.748800 6.070000
22.889400 2.446470 90.182800 -6.748800 6.650000
22.471300 2.457800 90.731700 -6.748800 5.700000
22.572900 2.759530 91.142000 -6.748800 7.070000
25.904400 1.693380 91.622300 -6.660000 7.630000
23.083400 3.713850 93.202900 -6.748800 6.730000
