VERSION .7
FIELDS x y z velocity SNR
SIZE 4 4 4 4 4
TYPE F F F F F
COUNT 1 1 1 1 1
WIDTH 139
HEIGHT 1
VIEWPOINT 0 0 0 1 0 0 0
POINTS 139
DATA ascii
-7.7453094146031 5.83051308203921 0.830196400963149 0.773573536458636 16.1087846848483
-3.92267536945342 8.89918015364482 -0.301889600350236 0.773573536458636 16.1087846848483
0.64219582023038 9.17679794916298 -3.16984080367748 0.773573536458636 16.1087846848483
3.7709859357335 8.36190971452756 -3.24531320376504 0.773573536458636 16.1087846848483
-4.39375557688509 8.35612342625001 3.4279077201059 0.618858829166909 58.1562364798271
-4.44373733432463 8.45117963202143 3.11627974555082 0.773573536458636 78.6326279824355
3.94563185300008 8.74917538379345 -2.96046575827328 0.773573536458636 78.6326279824355
4.92568481838581 8.61337723128888 1.55813987277541 0.773573536458636 78.6326279824355
-4.62874434148787 8.803029287635 2.89229713883936 0.618858829166909 42.298008345454
4.08872416831429 9.06647304596766 -2.89229713883936 0.773573536458636 82.8265282585808
-6.19077769654545 8.14716790156107 1.60683174379964 0.928288243750363 32.2100342507351
8.67846489996278 6.00793388670512 -1.57274743408268 0.773573536458636 14.9242986982726
-6.38604020940658 8.40413666302186 1.57274743408268 0.928288243750363 22.8736536717493
-3.6475218429321 9.54986365061593 3.06271868742417 1.08300295104209 15.0824447961232
6.0780813726118 8.67106674666477 -1.3244188918591 1.23771765833382 6.84978203341753
0.595020216993152 10.9425766950049 -0.766896968631648 1.23771765833382 7.05162540739467
7.45119190851962 7.80894610556563 -2.04505858301773 1.23771765833382 7.05162540739467
-2.79460029765796 10.2214872304059 2.89716632594178 1.39243236562554 5.27606687209863
-14.0710203371679 7.43134940390806 -1.73829979556507 -0.773573536458636 5.22593630879938
-5.62538295477771 19.9428093121858 3.58859089448587 -1.08300295104209 5.47050748568007
-6.05855096789855 20.2222167577395 -3.14549486816536 -1.08300295104209 8.00488779369818
-15.6349560433833 17.4613824697687 -2.19113419609042 -2.63015002395936 7.24376957478627
-4.00727901240287 23.1385805715667 1.64335064706782 -1.23771765833382 6.16820801731949
-19.2312403790054 35.8071974898527 -8.03415871899822 -2.93957943854282 6.39965923182826
5.86307616588464 39.3487219482169 -11.5691885553574 -2.93957943854282 6.39965923182826
-19.2005582236306 35.7500695056317 -8.35552506775815 -2.78486473125109 9.20642160978514
-12.2341221656942 38.5473905334582 -8.998257765278 -2.78486473125109 9.20642160978514
6.18593921359625 39.392440347977 -11.2478222065975 -2.78486473125109 9.20642160978514
4.74930433597363 40.5420900746219 -8.74262544240078 -2.93957943854282 36.8997818890761
4.75721729460296 40.6096384688313 -8.41882450008965 -2.78486473125109 54.5554044860169
4.7929858456902 40.9149740964165 -8.48212393242115 -2.93957943854282 58.556926346657
4.7929858456902 40.9149740964165 -8.48212393242115 -2.78486473125109 82.0056060623245
4.7929858456902 40.9149740964165 -8.48212393242115 -2.63015002395936 7.92373563000681
7.13417171849927 41.1936894358911 -6.90207271768483 -2.93957943854282 19.1564189562477
4.49934094986975 41.1881227895071 -8.87409349416621 -2.78486473125109 21.9153089267549
1.65053584927788 42.5260580259492 -3.31104722964775 -2.93957943854282 5.48035931534834
2.86140559291978 40.8886824697952 -11.9197700267319 -2.93957943854282 5.48035931534834
4.49040250567554 41.1062979753575 -10.5953511348728 -2.93957943854282 5.48035931534834
4.13314141199523 40.7797638314812 -11.9197700267319 -2.78486473125109 5.45395449104706
-23.2239053329656 53.9184323594636 5.9501466391611 -0.618858829166909 6.47981644437555
3.11411380713052 5.79825772546277 0.357885252028102 -1.97261251796952 5.22969494470116
4.59916653118298 4.71714149465918 0.204505858301773 -1.97261251796952 5.22969494470116
-6.04784605157258 3.3216875295163 -0.267805290633274 -2.0764342294416 21.3014355246217
-5.99865804657597 3.41979567141941 -0.0535610581266546 -1.97261251796952 50.6032626521919
-5.98420332518828 3.41155512940995 0.482049523139893 -1.86879080649744 22.3735051929015
-6.32274814482588 3.47267332631249 -0.279978258389332 -2.0764342294416 48.694099985077
-6.26981478503523 3.57438035240294 -0.167986955033599 -1.97261251796952 102.803339936353
-6.25261815844091 3.56457666818996 0.559956516778664 -1.86879080649744 42.9442130021072
-6.59765023807917 3.62365912310869 -0.29215122614539 -2.0764342294416 16.1443857010354
-6.54241542786285 3.72978819381176 -0.175290735687234 -1.97261251796952 26.9033549228026
-6.51577703017274 3.7146018177245 0.701162942748935 -1.86879080649744 11.1716555483723
-4.45825680455712 7.79600178807121 -1.48266747268785 2.80318620974616 5.9970424744213
-8.28871548283357 3.64784355224078 -0.917841768806765 2.90700792121824 6.46203049680218
3.41968678215836 8.12731773399139 2.25930281552435 2.90700792121824 6.46203049680218
-8.02545320937071 4.90555864193733 -0.438226839218084 2.69936449827408 6.05992343394712
-5.43655086109939 7.30062111971236 -2.41024761569946 2.69936449827408 6.05992343394712
3.67517937013599 8.53258344953256 1.5337939372633 2.80318620974616 18.1880223491632
7.87644710000226 5.1346506318116 -0.511264645754431 2.90700792121824 25.1619973775222
-4.36143636938815 8.65809294957891 -0.830196400963149 2.80318620974616 20.9277660047881
8.74821174636162 4.24267792241977 0.377362000437795 2.80318620974616 20.9277660047881
-7.11985774205453 6.23338412640912 2.26417200262677 3.01082963269032 16.6115106498105
9.03286040410118 4.380725858484 0.311627974555083 2.80318620974616 7.05281776349789
-7.30054842521613 6.54400054103216 -2.18139582188558 3.01082963269032 28.2255886079402
-5.37695138372103 7.82701951846171 3.27209373282836 3.01082963269032 28.2255886079402
-3.25171227760032 9.19097471513343 2.41511680280189 3.01082963269032 28.2255886079402
-1.94744046206836 9.85208788885698 0.155813987277541 3.01082963269032 28.2255886079402
0.155738972484503 10.0378818233539 0.311627974555083 3.01082963269032 28.2255886079402
1.45648639801102 9.77488210543282 1.79186085369172 3.01082963269032 28.2255886079402
5.65788718543408 7.75270231678522 2.96046575827328 3.01082963269032 28.2255886079402
8.78961712560144 3.66336457129424 3.19418673918959 3.01082963269032 28.2255886079402
-1.94714744876871 9.85060553659153 0.233720980916312 3.1146513441624 14.3736645943465
2.10416963588364 9.45709081381092 2.6488377837182 3.1146513441624 14.3736645943465
-3.35332828627533 9.47819267498135 2.49058920288945 2.90700792121824 5.44682941614745
-4.42690570118093 8.98093771560263 -2.65127237726941 3.1146513441624 24.6908059681843
1.82075294783637 10.0421477420974 1.76751491817961 3.1146513441624 24.6908059681843
-4.56829807413927 9.26778278995362 0.72307428470984 3.21847305563448 5.85784747595746
-0.477327971647052 10.245232739172 -1.44614856941968 3.21847305563448 5.85784747595746
1.82317721694981 10.0555185119389 1.68717333098963 3.21847305563448 5.85784747595746
2.56878328092152 10.3695525276451 -3.68110544943191 -3.32229476710656 5.02758061982291
9.71729171047283 5.13200807261127 2.62936103530851 -3.32229476710656 5.02758061982291
2.5573726060971 11.9403734924205 -0.854542336475265 -3.01082963269032 10.3284128309641
5.19558583012215 11.01477242962 1.23433893046427 -3.01082963269032 10.3284128309641
10.0570376416738 6.9622932101206 0.474745742486258 -3.01082963269032 10.3284128309641
2.17725096588567 12.0083704365438 -0.949491484972517 -2.90700792121824 8.61593832007773
2.56354988759923 11.9692152216732 0.0949491484972513 -2.90700792121824 8.61593832007773
5.11969061500147 11.0990960306321 0.664644039480761 -2.90700792121824 8.61593832007773
10.4856368571556 6.19441227997812 1.23433893046427 -2.90700792121824 8.61593832007773
10.1251667335973 7.41763647283046 0.29215122614539 -3.1146513441624 7.53597835841069
10.5171277439968 6.85610858930813 -0.0973837420484629 -3.1146513441624 7.53597835841069
10.4188064720657 7.00258679988532 -0.194767484096926 -3.01082963269032 65.3813687337601
10.4172388509126 7.00153318561351 -0.29215122614539 -2.90700792121824 59.6434055567713
10.6792766338674 7.17765146988245 -0.199636671199349 -3.1146513441624 19.6960886891005
10.6792766338674 7.17765146988245 -0.199636671199349 -3.01082963269032 254.51086983254
10.6792766338674 7.17765146988245 -0.199636671199349 -2.90700792121824 204.035893365356
10.9381007934582 7.35160984489418 -0.30675878745266 -3.1146513441624 9.43625622215836
10.94073427813 7.35337983698014 -0.102252929150886 -3.01082963269032 113.742757620558
10.94073427813 7.35337983698014 -0.102252929150886 -2.90700792121824 101.027734164636
11.3048918823068 7.36965150772508 0.209375045404195 -2.90700792121824 8.7607119646063
9.03909844609101 12.6380156834441 -3.84909240446551 2.69936449827408 5.06121162476152
-12.1836743908152 16.3611806172446 -0.316497161657504 0 6.55353546474511
15.1460936757264 13.576520479767 1.58248580828753 0 6.55353546474511
-12.5317793734099 16.492033095852 -0.321366348759928 -0.10382171147208 13.0241646720299
-12.3726044272573 16.6148904876087 -0 0 28.3535850937749
-12.5596902850184 16.8661238521568 0.163117767931175 -0.10382171147208 13.7959744249136
-12.5585566797633 16.8646015593137 0.326235535862351 0 31.7515152312316
-12.3876235296088 16.9741026093106 0.81558883965588 0.10382171147208 6.79890233175311
-11.2935628137695 17.4667892466238 3.09923759069234 0.10382171147208 6.79890233175311
-12.7471483489739 17.11785704398 0.165552361482387 -0.10382171147208 7.67986331377015
-12.7413946863884 17.110130580702 0.662209445929551 0 14.4825059999294
-12.7413946863884 17.110130580702 0.662209445929551 0.10382171147208 5.63255796325399
-11.4990728671034 17.78463409761 2.6488377837182 0.10382171147208 5.63255796325399
-7.28079696365052 20.0521745109376 0.662209445929551 1.97261251796952 8.78261104639489
-6.20696960289633 20.1227486200308 -3.47659959113014 2.0764342294416 7.19543487243534
-13.7732726679785 16.7098476707431 0.335973910067197 0.41528684588832 6.50062419700084
-7.38341695262105 20.3348020773182 1.00792173020159 1.97261251796952 6.7465351515249
-14.1343465646165 16.7994886400309 0.852107742924053 0.41528684588832 5.00799346809706
-13.3095225408404 17.8730566194497 0.172856142136022 -0.62293026883248 5.52406960640662
-13.497386647917 18.1253350773913 -0 -0.62293026883248 5.41749691830625
-4.96046716484214 21.4870333611111 6.22038652334559 1.97261251796952 8.53770965255087
4.98851396239424 25.2368577882476 -0.798546684797399 -2.90700792121824 5.16319514473995
21.7184617014605 13.717858924629 -1.5970933695948 -2.90700792121824 5.16319514473995
21.9720322577023 13.8780196747676 -1.81864138275505 -2.90700792121824 14.7448564460916
21.9833209905027 13.8851498871244 -1.61657011800449 -2.80318620974616 6.34032120161591
22.032748606375 14.363134179145 -1.84055272471596 -2.90700792121824 8.32996592513177
17.9915643675285 27.8260163074079 -5.47053170957242 2.49172107532992 5.94551009833297
18.035988374229 27.8947231252052 -4.94952868961314 2.595542786802 6.76731789615064
17.4214371341873 28.061395222821 7.62514700239467 2.49172107532992 5.72142060858656
-29.0843281807363 18.370302482064 -2.94585819696601 -2.28407765238576 7.57177901771612
-29.0843281807363 18.370302482064 -2.94585819696601 -2.18025594091368 6.48142888276979
-23.3927948166451 26.1254675866599 -2.45407029962127 -3.32229476710656 6.77609517554828
-24.9979955337417 25.0867122820757 -1.92576349900836 -3.32229476710656 6.95726703706078
-23.5880990930624 26.3435866948327 -2.75109071286909 -3.32229476710656 6.95726703706078
-28.7845698903491 25.8016562543718 -4.52834400525354 -3.01082963269032 9.71302731454927
-28.7634413672264 26.3879922163795 -3.95621452071881 -3.01082963269032 8.30669626098265
-26.0922848232584 50.6939150761244 3.54476821056406 0.62293026883248 8.97784425680934
-26.2578237277502 51.0155356326584 2.67318371923031 0.62293026883248 8.64796093095315
-26.4227908797913 51.33604534856 1.3438956402688 0.62293026883248 5.6306560919212
-25.7734852327852 52.2871010168345 3.16984080367747 0.62293026883248 7.14220118759193
-26.3857354285423 52.3795673110703 2.27634497038283 0.62293026883248 8.67464804596028
